# 3D point list with one line of data per point:
#   POINT3D_ID, X, Y, Z, R, G, B, ERROR, TRACK[] as (IMAGE_ID, POINT2D_IDX)
# Number of points: 411, mean track length: 3.3493161970670622
1916 3.0550666467815928 2.9634253657322556 3.9364889469429221 98 80 59 0.46602123193479739 11 6935 4 5321 6 4976 14 4438
1918 3.9545595100804949 3.0346550229654907 3.8813963730605492 72 52 25 0.73109552732180849 11 6938 4 5338 2 2736 14 5853
1919 -0.44225968053513276 3.0186553244408967 3.5388063609113818 164 135 100 0.20594736854786438 11 2764 2 2711
1921 3.3350964640345797 3.1158417349673098 3.6660997614233333 116 89 68 0.95154369291747787 4 5384 14 5772
1922 1.1490627922230534 3.32051181421676 3.0779395899075754 141 110 81 0.9495152472837658 11 6678 4 5426 2 4566
1923 6.9030835659891947 -2.9111195589068517 7.3919212191800776 211 195 175 0.80811134045375332 4 5439 14 4043 5 4786
1924 4.9583880066448183 0.50223663023344212 6.5791669649826021 8 8 6 0.33536905448032095 11 5896 4 5441 2 4185 6 3948
1925 4.5178724679072637 -1.1033068606608323 5.5381866783329672 20 19 11 0.33163647855794515 9 3629 4 5453 2 3772
1926 2.3774832487745146 3.2354236173022546 3.3418354809578421 97 71 46 0.56466791904341995 9 5985 4 5488 2 4624
1927 2.1070673918145841 3.1917860726232092 3.1777863560905546 40 33 25 1.4576075593712119 9 2595 4 5494 2 4609
1928 1.9752653718700308 3.1194143234922462 3.0898178808126655 50 49 44 1.1557607559280891 11 6263 4 5520 16 6316
1929 0.75020951706651118 2.6180392300248272 4.3295321213525648 139 112 82 0.38221559826529949 9 5563 11 6857 4 5586 2 4803
1930 1.843729419250224 2.1282896374023998 2.7356526236140923 19 19 11 1.6520305879942196 9 6229 4 5587 2 2813
1931 2.3746840018527124 2.6369040673579636 4.2409174762384882 86 77 61 2.2092918640962047 11 3606 4 5592 2 2664 2 2667
1932 1.0027985744053827 2.6057629169690073 4.4266436869661518 131 108 77 0.67965399429594164 9 5719 4 5608 6 3548
1933 0.78899688397632539 2.6367532864186995 4.301412384051285 126 99 69 0.57010364258991453 11 6815 4 5611 2 4857
1934 0.3045216872931481 2.5873264354287859 4.3659806243517583 157 131 103 0.79431521467698563 11 6709 4 5613 6 3574
1935 0.24093457889146949 2.5877714378299648 4.3517657600030217 139 113 88 0.80122273341386707 9 5638 11 3582 4 5614 6 3551
1936 1.8909383902743802 2.1035396132199624 2.8038611041585058 9 8 3 1.2287590256516101 11 6975 4 5625 2 4680
1937 3.4445938686583726 2.4625640553646573 4.8702086562848432 43 36 28 0.56730343798979377 9 3374 4 5627 16 6142
1938 0.69084999493507027 2.4162978842629443 4.6966972131983491 154 124 90 0.33249729028864228 9 6206 4 5630 6 6131
1939 1.1612009210513412 2.6337940271526348 3.9662974083886358 92 34 23 1.3391094490720572 9 5642 4 5631 2 4849
1940 -1.3261910293119714 2.6351334712171055 3.9919942695356152 123 92 64 1.8018094408233507 9 2907 4 5638
1941 1.8010405700163308 2.3124163489992848 2.7121508671311902 81 79 68 0.40287352933353043 9 5746 4 5642
1942 1.003025630358235 2.6668350509348744 4.3226832683280465 130 101 69 0.33659019718847266 9 2923 4 5647 6 3529
1943 5.1149116661020209 2.4922499544606906 4.8352444218094526 179 161 141 0.45370745587950828 9 2367 4 5654 2 4715
1944 1.358802345453004 2.2533595218580182 3.005230050117377 177 163 152 1.2208002589726834 9 5689 6 3330
1945 0.31453902884740126 2.4590317274583948 4.5977809937880698 125 94 65 0.6847336932046072 9 5668 4 5668 6 3351
1946 4.7480527644238988 2.5733421024601779 4.551844877092563 103 88 67 0.53569549100146141 11 6755 4 5671 14 2804
1947 1.8114887506562245 2.1565834043113248 2.7839603461931164 57 54 45 0.55407358392163497 4 5673 14 2856 16 6779
1948 0.5599611201174074 2.472074660817126 4.5861596033651901 128 102 75 0.35678275723442104 9 5698 4 5685 6 5085
1949 1.0137566726100615 2.4993188633215011 4.6026006675541167 103 79 53 0.34633221817873711 9 6269 4 5690 2 4865 6 5060
1950 -0.40986680564097705 2.4961692939175273 4.5438049202691282 104 82 58 1.7434778865332294 9 5567 4 5697 6 5214
1951 0.25418585827340623 2.5768457779347544 4.4064628213292902 131 105 80 0.62373805291255835 9 5575 4 5698 6 3575
1952 1.7942661068431163 2.2361483413867846 2.6959909980885119 73 70 61 1.1110697077664002 9 5683 4 5701
1953 0.30837364657338417 2.5784652027184856 4.380477067030192 112 87 60 0.56792458657198208 11 6728 4 5712 2 4818
1954 -0.65870268859810965 2.5227828768650551 4.4731353007915242 106 84 59 1.7154067847145178 9 5608 4 5722 6 1982
1955 1.1079403428420347 2.4279744298309258 4.4637065157592675 116 95 78 0.57896580084823657 9 1810 2 4890
1956 2.6564138914017179 2.8667249564041932 4.1247019873891801 115 97 73 0.34409974379080482 9 5572 4 5737
1957 2.6789338701297307 2.9076360363671845 4.006997698224728 74 53 32 0.5810187356263431 11 2803 4 5745 16 4849
1958 1.9973447633722332 2.5269517054999611 2.9176846056568699 56 48 37 0.39644328742410634 11 6705 4 5755 2 4850 16 4111
1959 4.9502643079534119 2.3655066640048785 4.9944516475492291 66 48 33 1.7528721013070654 9 3208 4 5756 14 1814 16 1918
1960 1.5837348843466292 2.0163598128186702 2.7762978950638368 211 207 195 0.28164552495953715 9 6252 4 5762 6 2474
1961 1.9809374183266626 2.5400385282916784 2.9248152355999668 100 92 81 1.3710114233657589 9 5619 4 5764 2 4839 11 3647 14 2534 16 2118 4 3011
1962 -1.2891557638325739 2.2688406801178007 4.7406203107472802 125 94 63 1.5054711505911831 9 3328 4 5765 6 2557
1963 4.8974453201316912 2.3895288162078518 4.917122894927056 97 78 59 0.44780478414621089 11 6879 4 5774 14 2826
1964 0.030228080571226446 2.3276163527294509 4.8246316234849731 152 126 101 0.49981149990687079 9 2492 11 5663 4 5779
1965 2.4167092837973883 2.8566289151319739 4.0588776735903318 119 99 75 0.3396001737151525 11 7032 4 5792
1966 2.7141324308945767 2.9008764641190705 4.0257582989651413 71 50 29 0.7345591195702349 11 7035 4 5793 16 6119
1967 -0.052889130071260476 2.3069140782934405 4.833139017349585 127 100 71 0.73421684612525739 9 6230 4 5799 6 3329
1969 2.4988192936707159 2.7699072521671506 4.2400259366375739 110 89 70 0.16048025130065857 11 3697 4 5811
1970 0.91843165873077648 2.7491127488269962 4.1486303634279826 153 126 97 1.0028868607174417 9 2974 4 5817 6 2572
1971 0.24143938492717568 2.7371815032767164 4.0935233330968082 119 88 60 0.63608706820554495 9 2866 11 3698 4 5820 2 4489
1972 1.627591002630167 2.0713240856800206 2.7166031348216846 29 29 20 1.3006931886634761 11 7067 4 5826 2 4699
1973 3.0731192261628295 2.7675243395231468 4.2699373012306747 27 18 9 0.66187611767293741 11 6867 4 5828 14 5554
1974 -0.79006774325107743 2.7195097228283904 4.2313774031364204 112 86 61 1.9055976076251477 9 1938 4 5831
1975 1.6482287651368432 2.0848314989579042 2.7288491804256791 94 87 77 1.6873965475500625 11 5090 4 5837 6 5306 14 1773 2 1191
1976 -0.13867696229726773 2.7673690405161322 4.0058460544536683 150 124 101 1.0374982693385191 11 7308 4 5841
1977 1.9598683560228889 2.5188674841811554 2.8870061751218161 102 94 83 2.0243684595806761 11 6714 4 5847 2 4852 14 2993 11 6721 16 6192 16 6206
1978 4.8213288001932799 -3.6653266135068248 10.577885738711037 178 158 134 0.49332756532980671 9 4092 4 5867
1979 1.9365239896613349 2.0082019872779671 2.84239066043386 72 72 70 1.6613568855001546 11 5656 4 5871 14 6131 11 5653 16 6814
1980 0.76792748483330997 2.021161743121771 5.387010575352555 105 81 55 0.92841420998218627 9 6108 4 5873 6 3734
1981 2.9822204743481149 1.7480336037887183 3.8431115297679068 46 39 27 1.0780341220122243 9 4911 4 5875 2 4073
1982 -1.8947592310557779 0.70058785990652883 7.3653672529481087 24 9 3 2.2197548769056388 9 3023 4 5877 6 1274 15 2625
1983 6.6852590986285696 -2.7264533217574662 7.7912275428822459 160 137 112 1.0426564456491381 11 1834 4 5883 15 1433
1984 1.108051320157218 2.4618905338055508 4.7317568276621405 131 110 93 0.27226216090420524 9 3299 4 5920
1986 2.4327417472654131 1.2622757938694886 4.2064256482312121 30 27 22 2.455157917399982 11 5577 4 5947 14 4910
1987 1.8436605435430451 2.9268619760661969 2.9304750020355366 9 5 2 0.33573673911685142 9 6295 4 5948
1988 3.3173473791521659 1.6058774156901239 3.5995472684071164 57 26 22 2.194200567165812 11 5707 4 5951 16 3405
1989 -0.0035885053887707592 1.2028799734871307 6.7867430948825342 83 65 43 0.85467913088503289 11 3319 4 5957 16 5236
1990 3.1769150427878556 1.4898417320176867 4.1976248404586833 12 8 5 0.53970434158135772 9 4762 4 5965 2 4084
1991 2.993234760900342 2.9296671758221673 4.0368184897721759 97 74 58 0.79607039619480735 11 6916 4 5972
1992 2.6899482311987315 -0.91132918659123929 9.4137565135666232 114 119 125 1.4189021188449644 11 2595 14 2129 16 6945 15 3049
1994 6.2572053224831272 1.5871269226477236 6.6957018777288289 58 43 24 0.55949098495801786 11 2972 4 5982 14 2655 16 2561 15 1851
1995 2.4887018017066902 2.8704098856756803 4.0306238733602671 109 88 67 0.4993896564296188 11 7011 4 5992 14 2562
1996 0.39765450147356152 1.0877958671146395 7.0548983571066346 89 71 51 0.91481088024339419 9 4713 4 6037 6 5685 14 4897 5 3346
1997 1.7802102567223272 0.72857927213381402 2.1120814804519896 92 78 67 0.5725593523953828 9 1632 4 6040
1998 -1.4568105710543253 2.5908862441231619 4.0467925560961895 102 76 51 1.5845363043429113 9 2862 4 6043
1999 1.3777669491790578 1.8685681965862939 5.7583913039843271 146 124 100 1.1761538940633463 9 4984 4 6058 6 4398 5 3519 3 3649 7 3110 1 2060 8 2587
2001 5.562670945217036 0.15990188237803091 5.8204180932040845 11 11 9 0.20008277519454659 11 6007 4 6068
2003 23.828456382289701 -14.638838758048182 35.894915531165417 235 220 201 2.1250055632078535 11 4234 4 3951
2004 15.864657016322582 -2.1122200435064489 44.403281796015207 49 49 49 0.42334173174848122 11 6155 4 4977
2005 7.8257093560229301 11.812506161217762 32.412286552419722 183 167 154 1.8755197836359119 9 2621 4 5303
2006 3.25739678763144 2.8518364916610301 4.2730398279916804 59 45 29 1.9611378296940405 9 208 4 139 14 130
2007 -0.40094359375303706 1.418448710560273 6.1194699958138079 97 79 57 2.2147278653844191 4 534 2 1172 15 1134 16 675
2009 5.4383773889039411 -1.013909894384581 5.302421276543364 17 17 19 1.7889996763010627 6 1443 15 598
2010 5.1024845604931874 -0.18300212642085326 5.594817239891853 116 112 108 0.34060692764824529 9 1468 11 1208 4 1042 2 913 14 1082 5 1590 16 1210 15 1153
2011 5.0579035289427425 0.16373892933658385 5.9223103230028631 15 15 17 0.55149245397531044 9 1572 11 1373 4 1104 2 977 14 1184 16 1709 15 1567 5 1473 3 2639
2013 -0.6163695644589009 -0.028170685736313421 8.176373648829566 199 175 151 1.3593220040837826 11 1038 4 1199 2 918 6 852
2014 5.0423595735191764 0.06889021375678292 5.8381085738716321 104 103 98 0.33587809951058994 9 1153 11 1111 4 1398 2 1058 14 953 16 1669 15 1588 5 1606 6 961 3 1499 1 1689
2015 5.0575964856570632 0.009525783327868128 5.7755356278977246 78 67 65 0.46838964436621899 9 1094 11 1139 4 1401 2 1026 14 1007 16 1682 15 1540 6 979 5 1646
2016 5.0912272267572254 0.05415833373046619 5.7969211130081684 19 17 22 0.36257899532112192 9 1146 11 1105 4 1421 2 1067 14 983 16 1238 5 1649 6 992
2017 2.3941543077792091 1.5707255174409624 0.63323959713471367 65 53 42 2.2298621157782397 11 5635 4 2789
2020 4.82471542690514 -1.3856774836591679 5.5039423347666245 28 23 27 2.2548364671549925 6 4573 14 3937
2021 5.1722699565906076 -1.2198979448658542 5.0963551287245412 48 41 33 0.83678045239814658 9 6512 4 4085
2022 2.8349077478416533 -0.78916535064169868 9.5789145949601746 10 22 34 1.313311383248396 2 4256 6 4133 4 4188
2023 4.8851606980023963 0.20605910301803998 6.1462390635538746 15 11 10 1.948029643323256 9 6513 4 4282 2 4172 16 5875 1 3904
2024 4.8835767342312151 -0.37217847164978235 5.712616567048828 73 64 58 0.25743480594785639 11 5026 4 4329
2025 4.8822224138982167 -0.23136216698312106 5.7206041044908176 31 30 25 0.19611471263692998 9 5263 4 4428
2026 1.3103640133452403 1.7185928603855372 0.52302709567906625 2 0 1 1.788170058305856 9 3349 4 5810
2027 2.798920421715235 2.3721928184131755 4.0305419535674307 15 16 10 0.26026511336071451 11 8 2 3
2029 4.6039193780521614 -0.12335678392533715 7.1883606168628997 18 18 18 0.15019357669051109 2 8 6 14
2030 0.11179760436545561 1.9567897777348808 5.3416004246879023 145 124 93 1.7932343679787062 9 8 2 11 6 8
2031 0.12293243490022703 0.65329793525313207 8.0356565887962201 116 98 74 1.2596333166417417 2 20 6 17
2033 3.6547790982994295 1.0454710790446047 4.7610500395862667 243 232 214 1.6317240119464074 9 31 2 32 6 37
2034 3.5677222145316696 3.2869315312437517 3.3633172444253376 113 93 69 1.8345361509539575 4 28 11 36 2 36
2035 3.8004529833441691 -0.21606196327701666 7.4622254690112877 39 26 17 0.16136291574095943 9 30 2 53
2036 3.3627653620406162 1.7713330249274253 3.7809886608694465 40 36 33 1.6504319746023599 11 50 2 77
2037 1.5380097563986981 1.8675159354027657 2.8650076499657153 96 94 81 1.7439225513904644 11 106 2 80 4 49
2038 3.2110597891096146 1.9574309602087123 3.398371530437247 253 255 254 1.911716131625661 9 76 2 81 14 61
2039 2.7073694540016722 1.1646492420163039 4.6248055123728671 17 18 15 1.8663123624011082 4 92 11 75 2 87 15 89
2040 4.7868405057966728 1.4799040473345788 4.7857308535723968 16 18 13 2.2311295179161346 11 124 2 130 14 114
2041 -3.0284336428214722 0.90488926255171698 6.6368170273365523 73 54 40 1.4583027231117962 4 94 2 133 13 140
2042 -0.1444268323705063 3.1116866998701971 3.2861744549199292 143 119 93 0.12407186703795628 4 105 2 148
2043 0.17841616466372634 0.29343509630985115 8.5061969165126481 104 86 64 1.5989026609635144 4 177 2 169 14 194 16 217
2044 2.0096541243171235 1.9448529946341648 2.783015570094542 0 3 2 0.35391143252480339 4 246 14 184
2045 -1.6182062321897919 1.3353803024718656 6.3788988288080084 117 100 74 1.4130363348422532 4 122 2 177 6 79
2046 0.31255288557934746 2.1973043836531034 5.063357057512814 120 103 81 0.76160625959294492 9 106 2 204 6 115
2047 3.0101712392104982 3.2150805049006017 3.4914078082717124 128 106 82 1.5536782991757496 9 228 11 332 2 216 6 318
2048 1.9731060450394537 2.0554773238756812 2.8429795541505918 137 135 122 1.8873223025823169 4 211 11 123 2 226 14 80
2050 1.5980966230301867 2.2659329526081016 2.714146325322349 32 33 28 0.52172956398869963 11 215 2 234 14 132
2051 -0.5887817978670441 2.2806355747084801 4.9505442154229211 120 96 70 0.10920957430208227 11 221 2 240
2052 4.9846575376106736 1.5815812450028506 4.9870450325534348 87 71 56 0.26580136593256248 4 349 2 242
2053 5.3551887073005773 -0.062208825949101203 5.5996111260683037 42 38 35 0.56826008612595513 4 308 11 305 2 258
2056 2.1255194892927034 2.895792278315994 3.1618064243595061 190 187 178 0.37975339286861526 4 326 11 326 2 314
2057 1.5760159352228575 1.3544055327550486 4.1529181641617949 110 95 72 2.3605222371174741 4 338 2 323
2058 -0.81421660468854173 1.0547401675329082 6.926036689572217 119 103 80 1.5010304134491415 11 271 6 136 16 303
2059 2.3102600761432122 1.4865424607647426 4.1814126870712469 247 250 237 0.64589592019241515 11 351 2 327 14 325
2060 -1.6954670989488954 1.5520418331727328 6.0932047592672678 106 87 70 1.678495167496953 4 341 2 335 6 155
2061 5.092004746016924 2.0850176328396954 5.5458655036053717 67 55 39 1.7339447966268029 4 1227 16 160 15 77
2062 3.0927571574034909 -0.83513743682996111 10.572133635304297 7 18 42 0.96963489673441405 9 456 2 362 6 431
2063 4.7258168206117022 1.5696053362707596 4.8525581835739349 91 79 61 1.7610460643097077 2 364 14 302
2064 0.85290324419575947 2.9136765873111092 3.8809291274575726 116 96 71 1.0472384184386725 4 325 9 330 2 384
2065 3.1477414681674225 2.8184579927222644 4.0901450508705155 58 48 38 0.38405781538891426 11 419 2 392
2066 2.4928649851871976 2.6761264150914568 4.4578420520717081 64 54 44 1.4609197839964303 4 510 2 395 14 442
2067 3.7324453959848563 -2.0625271900330642 9.0712434276027167 196 180 155 1.5681126627445261 4 202 14 163 16 189
2068 6.8730293556105355 -2.7076553650783639 8.1362124417669381 228 215 206 1.358355291667988 9 427 2 409
2069 3.8882837548894376 1.2590892443427368 4.47572908877099 243 235 212 0.66746662729745354 4 368 2 421 5 2446
2070 3.2078909828729594 0.60981838619097062 4.8646407722744565 83 88 92 1.4809813844875812 4 435 11 257 2 441
2071 0.62817389534538703 0.96251311987427479 7.3640411419993566 100 82 62 1.6497411509957309 9 442 2 460 6 248
2072 5.0229767902541864 -3.3498333991634128 8.7968457235138473 8 8 10 0.56403609956813128 9 490 2 467
2074 2.9669475889864731 0.58332604862805937 4.8038373034872111 100 105 111 1.0402537314409248 4 426 2 477 6 496 5 460 7 353 3 435 1 378 8 480
2076 4.8131636992102056 -0.3085093595712759 6.553224685722145 46 43 48 1.5744041068349857 11 198 2 488 14 436
2077 4.5342009057328321 -0.44563889205829071 8.1377689045403674 174 163 141 3.0185271109136496 4 2305 2 490
2078 1.1573421760668017 2.5816952379161249 3.9420984557447061 146 123 92 0.21980249024658455 4 405 2 494
2079 1.4009191467655038 3.2930325281277333 3.0545604958430981 39 29 20 0.7076397093894129 4 500 11 560 2 513
2080 3.6476491193953815 1.5615295928726307 4.1163887420410115 216 203 195 1.0703762922532802 11 347 14 298 16 249 15 117 4 342
2081 -3.1330019807467018 1.2233026381641061 6.7177576173625635 133 115 91 1.0616149242911439 4 468 2 531 13 933
2082 4.9104412451519623 1.698090846110214 4.9639830310350881 75 64 46 0.67551982834200408 11 585 2 533
2083 -0.77576881974683298 1.7979363241995272 5.7150663857710633 155 130 100 1.4146496389405172 4 547 2 538 6 298
2085 3.6234967893061922 0.83249008683001746 4.7323397326996623 89 91 86 1.8106994354749149 4 5000 2 550 6 1893 9 3710
2086 4.701959577690852 -0.95483661807596532 5.4192270081459855 31 31 32 0.27087233656280524 9 579 2 558
2088 4.839646879251001 -0.87125897567151978 5.3329388614810966 34 32 33 0.32373987766054657 4 582 11 622 2 574 14 602 16 1011
2091 4.8283037437540335 -1.0331904518651671 5.2566780208521573 31 30 36 0.41168326506907282 4 777 2 584 14 505 16 521
2092 5.3997343317968491 -0.91743068598149313 5.1496304293797728 89 83 80 0.30535173991980724 4 614 11 646 2 593 14 518 16 632 15 523
2094 5.4927705798498092 -0.91283708572700306 5.1610803179445899 112 111 107 0.42120720046815763 4 617 9 1376 11 652 2 595 14 520 16 614 15 521
2095 4.6918800616793872 -1.0326258295315525 5.3824291813702656 35 34 40 0.33367113523557307 4 787 9 611 2 596
2096 4.757284908947268 -0.98734248346352993 5.3286020317340324 38 35 46 0.35296871957505976 4 612 2 599 14 514
2097 4.6563957561741596 -1.0087108598843262 5.4068238247162412 138 138 129 0.30577341449575907 4 611 9 620 2 602
2098 5.3512525342397286 -0.87903037748248869 5.1547355022228363 19 18 23 0.56175636680682983 4 625 11 658 2 603 14 584 16 618
2099 5.4934114330028034 -0.65694382683280883 5.2408692791711706 69 69 61 0.33677189192431628 4 690 2 607 16 606 9 1494
2103 5.6868715403158214 -0.74573787971592365 5.6638326632797735 20 18 21 2.1958456904864287 4 651 2 617 6 1034
2108 5.6152372785010165 -0.88812448326633819 5.5969267898801913 87 82 79 0.66654135226496247 2 636 6 1400
2109 5.0902306021082406 -0.77261380305048699 5.2531247775381278 23 23 28 0.35167173619361197 4 592 11 638 2 638 14 560 16 642 5 969
2110 5.4900281487353233 -0.74053974554328128 5.2084540818496778 106 105 103 0.095723766757874904 4 682 2 639 16 577
2111 5.5774612660694709 -0.73719871636913625 5.2143452477094119 82 77 72 0.26789271978485718 4 669 2 641
2112 5.3133251105906458 -0.67388593240569161 5.2358096127146663 73 68 64 0.30463311305161661 4 685 2 657 14 862 16 564
2113 4.7884801475435239 -1.3439456934105132 5.147225602008441 103 96 90 0.21001787490739102 4 702 11 780 2 660 14 704
2115 4.7850877050834866 -1.2543732959846523 5.1705520133944054 146 137 130 0.39241328796715608 4 716 11 736 2 678 14 718 16 514
2116 5.2809949425910139 -0.13955199785202763 5.5576190431889545 93 93 95 0.32576989843285437 11 1220 2 686 14 1093 15 1165 16 1231 4 1463
2117 4.624860986387386 -0.99101301964383093 5.4375999078229338 35 36 38 0.47205666432648913 9 626 2 691 12 964 8 1516
2118 2.3943078272693201 2.7264376774315511 4.2954320762355866 48 36 30 0.48767891836977828 4 934 11 861 2 700 14 444
2120 4.6444520058883629 -1.1683655157120052 5.3281657500157511 152 142 141 0.31378606781482632 4 811 2 717 14 708
2121 5.3421508636652977 -1.1278389640759783 5.0772093144403394 27 24 30 0.030974134377948288 4 800 2 745
2122 4.6072170033472819 -1.2280145441905788 5.3309433543969673 32 33 37 0.36627225772545496 11 813 2 756 14 678 4 795 9 796
2124 -0.61061159444371071 1.5074821785752945 6.4928409101887228 136 118 94 2.5072370093223553 4 537 9 377 2 774 14 475
2125 4.1125847560340612 1.0536049815995157 4.4728601014936045 192 182 163 0.52016641262874341 4 1057 9 726 2 786 6 853
2126 2.0369482172565592 3.3330455265886849 3.1826543242568044 73 57 42 0.49110612288148547 4 519 11 900 2 830
2127 5.1227294719737788 2.4465726462995225 4.9184699952121607 75 59 43 1.4581611236143261 4 558 9 809 2 837
2131 5.6499060148075504 -0.5481724167012888 5.7905025047646133 76 75 70 2.2763643891013312 4 985 2 863 6 1011
2133 5.4243760426055054 -0.58264680065386343 5.8906484263119525 20 21 20 0.066799445672180435 2 867 6 619
2137 5.5766353679329148 -0.49263336627404986 5.8884394030357141 68 66 61 2.3502209060330608 4 943 2 879 6 1040
2138 5.0874308799656625 -0.37318854634213777 5.4750884409876006 25 23 32 0.29003045389195831 4 945 9 947 2 880 14 890 11 952 16 809 6 1087 5 837
2140 5.0931575562254885 -0.52640980004214144 5.3741703090505366 24 25 29 0.39252242204498561 4 662 11 694 2 892 14 833
2141 4.7828785843367543 -0.5941958521504207 5.5595089720101871 30 30 32 0.19973027347230721 9 652 2 893 6 1005
2144 3.3567821214227704 0.98493790002691972 4.8720605541185131 109 101 91 0.24697804027298098 4 1026 14 310
2145 5.2702671075322272 -0.56203881145059542 5.2995804247870506 15 17 22 0.45027596064844183 4 652 2 897 14 835 11 686 16 591 15 645 5 1403
2146 5.6878230109640411 -0.66479862340466922 5.7032906051757575 17 15 16 2.1153045190829896 4 657 2 898 6 1046
2149 5.4500072529613268 -0.45585404168579485 5.3318674028108646 22 20 23 0.19480192008896424 4 974 2 905 16 720 11 982 14 859 15 677
2150 5.7803345173463239 -0.54328415423762955 5.7275448326748739 16 15 13 1.4848725679639461 4 973 16 764
2151 5.2431614921220948 -0.18219614200872111 5.5363769321821632 19 19 24 0.40842010021184944 4 1036 2 912 14 752 11 973 16 1214 15 1150
2152 4.8231249317097555 -0.2343870048841464 5.8452622772567233 35 30 36 0.5312336978087927 11 974 2 914 14 1086
2153 2.935955505885258 0.65256140085451475 4.7753883500829657 197 192 186 0.56250977679535508 4 1004 2 925 6 483 7 690 3 709 1 518 5 648 8 704 12 420
2154 3.2591341276025436 -0.63737655291569539 9.1576590555319726 27 22 18 1.8619065991316746 11 534 2 930 14 980
2155 3.6993224979235895 -1.056908360641335 9.4892476061828983 32 24 11 1.8029781568403502 9 5257 2 932
2156 5.4720460910116886 -0.35244236348815855 5.6516394876438234 18 18 20 1.7922444802303326 6 1092 16 751
2158 5.3401205137626535 -0.24081088302973178 5.4703856333331329 17 17 19 0.4069235616052243 4 962 2 946 16 877 11 967 14 909 5 1988 15 374
2160 4.8312015490367983 -0.30003257471497924 5.7994876070168706 42 38 42 0.24717850700241084 4 964 11 968 2 949 14 900 16 932
2164 5.8155323184603356 0.054468230367820399 6.4698311660692935 12 12 12 0.96158480234956989 4 1107 14 1854
2165 5.5322722216558144 0.17160101303960446 5.8077812908961155 14 14 12 0.52763121577504624 4 1105 9 1583 2 967
2166 2.9910088385607749 0.98434255260192938 4.8181492608119472 77 78 80 1.4374859574268211 4 1055 11 1357 2 979
2167 3.3548424300561703 0.76216151547081024 4.7388681897079152 79 80 82 1.0079536562398175 4 1010 11 1388 2 984 14 2618
2168 4.2950251853476669 0.7150307682987912 5.4347824622215164 44 44 42 1.8272320712273307 4 3395 7 645
2170 5.4047095258735549 0.1294555404022931 6.5146907515055803 15 15 15 0.34733917272560649 2 1003 6 1249
2172 5.3919862907806984 0.039509739956652662 5.7041790792236648 12 11 9 0.35059653215999731 4 1435 9 1091 2 1013
2174 5.4869855228293449 0.042858458491103084 5.7067770268965656 13 14 13 0.39024972421606741 4 1428 9 1746 2 1023
2175 5.56258949503765 0.051183567441974449 5.6850497409024259 13 13 9 0.59065086979840264 4 1422 9 1745 2 1027
2176 5.8652115669791822 -0.14560544614379173 6.2693345448413238 11 12 11 0.9341955871895895 4 1407 14 954
2177 5.5826573995084425 -0.014247297302726385 5.6388479290023454 14 14 12 0.29531950199642604 4 1406 9 1744 2 1041 16 1286
2178 5.6147725337846772 -0.13005870132724409 6.3110296827821584 86 86 84 1.442745342383466 4 1388 6 903 14 999
2179 5.3479233304436384 0.0047704961597454529 5.6725044332714836 59 55 56 0.3204133954556686 4 1397 2 1044 5 1914 9 1119
2180 5.6266983241230095 0.015425813833377669 5.6759406505688537 60 61 54 0.26250518785547289 4 1355 9 1750 2 1045
2181 5.4451481135613102 0.012009981828033103 5.6692960571621862 70 74 75 0.27957947195403032 4 1395 9 1749 2 1047 5 2665
2182 5.5363857851823495 0.016433897469780766 5.6757141553813106 50 50 50 0.17168800439742221 4 1391 9 1748 2 1048 5 2675
2183 5.3625453385550879 0.10627572650992494 5.7437091083063185 15 15 15 0.55147635222033309 4 1132 9 1151 2 1050
2185 5.8272715187226565 -0.0072921414120265607 6.3922678664265771 11 11 9 0.74499216322204287 4 1131 14 1210
2186 5.3156201192324746 0.12823736527250815 5.795562495868765 48 48 48 0.28226897872477053 4 1121 2 1062 5 2705 9 1555
2187 5.409250716272048 0.13634764991902623 5.790679967829206 62 62 62 0.24125165995197875 4 1120 9 1554 2 1063 5 2707
2188 5.4501738126501778 0.067077722658136038 5.7737114120038253 44 45 39 0.33855394259205346 4 1432 2 1073
2189 4.5353402611802993 -0.083807165666043237 6.3462786242298685 20 18 23 0.49535883685294557 4 1439 2 1080 6 950 5 823 7 1329 3 1360 8 1900 12 1177 10 2121
2190 5.2789296284859537 0.092484666623186551 5.770728800178091 12 12 12 0.32873517808098512 4 1376 2 1083 5 1937 9 1150
2191 4.1162127358822138 3.1591441638641471 3.6524424187856717 80 62 40 0.37720302777928116 4 891 2 1092
2192 0.51597287413517479 2.9571256800740673 3.735397450179486 121 100 73 0.39636294135207417 4 1767 9 858 11 1252 2 1093
2193 1.9100558264334357 2.8452703518030029 2.9889395669919998 9 6 2 0.14155657392956 4 887 2 1118
2194 1.9075757605010595 2.5042920235428308 2.8605801784258604 62 59 50 0.77338233457388139 4 1184 11 1286 2 1127 14 800 16 1115
2195 3.2261133954167751 1.8437734637597221 3.600456454079048 4 4 1 0.25764878240498501 4 1787 2 1132
2196 4.7316095985550124 -0.97123849215320379 5.3779550147466493 116 112 100 0.30759159195924157 4 621 9 623 2 1135
2197 0.089118378845373325 3.4267696501193714 2.8435250031698538 99 77 54 0.49059913328797011 11 918 2 1146
2198 0.26552253398273679 3.4498923359325846 2.7784994888174497 166 141 114 0.71061191756991504 11 920 2 1149
2199 2.6552386717024299 1.4009696766350075 4.1166188151780867 254 254 242 1.9910171067695026 4 505 11 2986 2 1156
2200 2.6186184656571592 1.418663332057672 4.0818907861248057 102 94 84 1.4914289196015365 11 875 2 1157 14 810 16 1049 15 343
2201 2.1734105830776849 1.4289794620123395 4.1890493656467536 29 26 19 1.3668360325924951 9 842 2 1159 6 889
2202 2.6806532023606806 1.5474833000657493 3.9762904440249538 216 207 192 0.59145774916449023 4 736 9 2067 2 1165
2203 -1.3564666164882879 0.68108119687970881 7.4954849969777202 19 14 8 0.86966359069992127 4 1887 9 447 2 1180 6 358
2204 -1.3235394853309848 1.4266597081032926 6.2771420949744829 93 78 57 0.30458748375174444 4 877 2 1182 6 553 11 1429
2205 -2.1905099731154798 2.0557083907682419 5.2048126023817698 91 72 56 1.8315641964619915 9 1183 2 1192 6 778
2206 5.4943566016734824 -1.0005588739467925 5.1428773444840257 77 72 66 0.44108570260266378 4 1308 11 805 2 1234 14 537 16 451 15 615
2207 5.4864019625321827 -1.0836483108215464 5.1190886028787839 112 113 105 0.22092797276767989 4 816 2 1238
2208 5.4005678401398081 -1.0932475471842495 5.1105097043968266 89 86 77 0.57955702969986078 4 813 11 830 2 1240 14 524 16 549
2209 -2.3486153847347215 -1.7280870776900119 5.7173027849368134 132 114 94 1.0615500612228865 4 1377 2 1243 16 1595 13 1146
2210 -2.2994346308439684 -1.7532248705642994 5.6682974282852738 230 217 201 1.1115930812955046 4 752 2 1244 16 1536 13 1268
2211 6.9302153465412086 -1.6758513299621025 8.0372614378506047 53 46 40 0.49515983347158821 11 1589 2 1253
2212 1.9441463851523049 0.55787735484728695 1.598045561949837 254 250 246 1.3226307588122892 4 986 11 1173 2 1254 14 869
2213 4.6738332655996349 -0.93414888978228594 5.4616350679508399 89 82 76 0.26455347148506891 9 1364 2 1260
2214 4.5926271522011115 -0.9727821830682899 5.4826300518812561 73 63 61 0.36075341601029753 9 1353 2 1262 8 1513 12 965 10 1557
2215 5.5829840393631018 -0.82477704277836106 5.2012626247973968 56 45 43 0.11415899317037567 4 741 2 1263
2216 5.4931694799596791 -0.82721596635472827 5.1859834376192655 70 65 59 0.38138436370596113 4 581 9 1368 11 623 2 1264 14 601 16 650 15 555
2217 5.6681660328594692 -0.015003279537462548 5.6405637152083283 5 5 5 0.25617231634019272 4 1736 2 1285 9 1755
2218 2.4493141777701752 1.1890822232948774 4.6086712710898361 55 54 49 2.431081096062607 2 1286 16 1097 11 1383
2219 -0.51055382637903535 1.9750648904103951 5.3606782214886861 128 104 78 1.1067943503773083 9 823 2 1287 6 745
2220 6.7297116977784741 -2.4822779988222301 7.4719703143632374 38 24 21 1.3634865502224165 9 1721 11 1513 6 2307 14 1285
2221 6.6509891507720571 -2.3886352218163109 7.6624799074210683 29 24 21 1.647803537784216 9 570 2 1292
2223 5.5974321218212326 -0.084720280162774331 5.5834748580306321 17 15 16 0.40064941921348224 4 1442 9 1888 11 1093 2 1314 14 1072 16 1273 15 755 5 2652
2224 5.4133997137551626 -0.090194399343172721 5.5755978492244216 13 13 13 0.42290023386504844 4 1197 9 1478 11 1079 2 1315 14 1065 16 1196 15 413
2225 5.6548261768235975 -0.12087068205655217 5.5721461005543675 63 67 66 0.45606471474098981 4 1451 9 1736 2 1321 5 2693
2226 5.5638864866849458 -0.11931904613335309 5.5668854226497979 54 55 47 0.58341698042572321 4 1452 9 1462 2 1322 5 2666
2227 5.4651845786309483 -0.12040910870357603 5.5508562949434124 83 84 76 0.33484229349004357 4 1455 9 1459 2 1323 14 1056 11 1236 16 1177 15 1231 5 1981
2228 5.6071630529789473 -0.15163290126282822 5.5283556707584696 12 14 13 0.52172327161298293 4 1456 9 1473 2 1328 16 1180
2229 5.5129839430616405 -0.15097356663086955 5.5195960523971888 13 12 17 0.60894584828568687 4 1454 9 1458 2 1329
2230 5.7243381162185338 -0.26780364258569705 6.0377095671894336 13 13 13 0.014662773179504988 4 1039 6 1072
2231 5.5005757238615418 -0.083543551901090765 5.5694404061644835 14 14 16 0.37091471068875176 4 1447 9 1480 2 1340 11 1092 14 1068 16 1204 15 1249
2232 5.5753192023908147 -0.17407789473773508 6.2896849547732705 15 14 19 1.9353275537122359 4 1048 6 942 14 950
2233 5.3664288949439154 -0.062368663781128819 5.6186641436142457 41 37 34 0.29730811543243513 4 1477 2 1343 5 1973 9 1523
2234 5.54093041766754 -0.046225316312830091 5.5989687224579736 34 35 30 0.22900481939050513 4 1467 9 1760 11 1888 2 1348 14 968 16 1282
2235 4.3728254020648203 -0.30712039408802516 6.4475076218728464 32 29 27 0.099774243706505186 4 1462 2 1352 6 901
2236 5.6382940948110347 -0.050849121261397699 5.6165049139091385 45 45 45 0.21579338302995321 4 1725 9 1761 2 1353
2237 5.6293523563755405 -0.2971897560198673 5.4358088158600157 13 13 11 0.084736791276662685 9 1456 2 1357
2238 5.4941758550986686 -0.33952982456609671 5.4014424552977642 58 61 52 0.29473783121774783 4 1335 2 1361 9 1513
2239 5.432936052350632 -0.36012726804923845 5.4573494181275688 44 42 32 0.33119382624483312 4 1298 2 1362
2240 3.2764069930408151 -1.636536171518054 9.0790968457690777 151 151 138 1.0292220142886153 9 1768 2 1365 6 1482
2241 3.740497085418506 -1.7423672623920909 9.3696889713761937 157 152 135 1.3955909685835242 11 1545 2 1366 14 844 16 780 15 689
2242 5.777574083639621 -0.469779919590251 5.7782086893406168 15 16 20 2.1053270370290087 4 953 6 1023 16 906
2243 5.6140098124911262 -0.22662083922367113 5.4696847296774056 14 14 12 0.50468820863717212 4 1318 9 1890 2 1378
2244 5.9328046558214744 -0.32736575308327137 6.0959361120652718 37 38 33 1.0053113853787208 4 1468 14 1079
2245 5.4844816673395895 -0.19398973262331773 5.5078478461294305 53 52 50 0.29542280023491685 4 1427 9 1479 2 1381 5 1987
2246 5.51751811352222 -0.22308116503594566 5.4568831639999686 12 12 14 0.24624136224456214 4 965 9 1441 2 1387 16 1156
2248 5.3024999998322118 -0.2820129500797362 5.4542173389540505 97 97 97 0.30468361280582545 4 956 2 1393 14 1047 16 857 5 1417 9 1451
2250 5.5738495165055664 -0.26014716614011785 5.4494611950030283 65 61 58 0.22505781184160586 4 1325 9 1891 2 1396
2251 4.7214976082004076 -0.022141167968940507 6.9362375405850942 17 17 17 2.6481874590516967 2 1405 11 1647 3 1600
2252 5.5368204954577758 0.22403609609604447 5.9013984042641994 8 8 6 0.32116978209939223 4 1498 9 1537 2 1416
2253 5.7252431594056361 0.16025105322013072 5.8620080566877002 7 7 7 0.79332171381670691 4 1530 11 1758 2 1419
2254 4.499180989244838 -0.033482295717990593 6.4682819396786844 52 51 46 0.22015253344827182 4 1702 2 1420 6 1642 5 1526 3 1574 7 1554
2255 5.6777646420227859 0.13771764042991688 5.7975264501206958 40 40 40 0.23124478955170852 4 1510 9 2190 11 1646 2 1428
2256 5.5954518567766023 0.140460139360333 5.7995556213986177 55 54 52 0.02358996826474689 9 1558 2 1429
2257 5.5081426503233955 0.13831872160401204 5.79981959837012 42 42 40 0.68744581066368349 4 1512 9 1557 2 1430
2258 4.744000333981492 0.028604712818196092 6.1289752590604083 78 76 77 0.14097866809140733 4 1703 2 1432 5 2053
2259 4.5325786846237648 -0.040186496703486389 6.3833862618381838 60 58 59 0.27708971800810384 11 1660 2 1433 6 1644 14 1607 5 1450 3 1590 9 1123
2260 3.8256417251747807 0.38721032765268359 4.7744168793915254 52 52 52 2.0219952629028382 4 1488 2 1435
2261 5.7144179295759905 0.1599236837354012 6.1501712148567789 33 34 28 0.62079094731846407 9 2181 16 1641
2262 5.7534285989910376 0.18801840821593921 5.8749144833001017 33 33 31 0.36970537606497017 4 2071 11 1738 2 1442
2263 4.5427864715359592 0.0051750881760402427 6.4322610958465223 21 21 21 0.4610313404545322 11 1681 2 1443 6 1240 14 1571 5 1528 3 1450 9 1138 8 1819
2264 5.6229585978309888 0.16988586161751146 5.8201570613630667 10 9 7 0.37943902255060191 4 1529 9 1561 2 1448
2265 4.6349831177126362 0.18599186258071237 6.5024828430910357 56 56 56 0.077195986080827603 6 1832 9 1651 2 1454
2267 5.3340931822225093 0.32548313560269054 6.0351071908908098 6 6 4 0.76363282222400519 9 1653 2 1458 5 3782
2268 4.6370908504694386 0.21888778861537 6.5481022726638063 13 13 13 0.16668081599890941 9 1613 2 1470 6 1903
2269 6.1490755755183484 -0.021502250583903475 7.8940365345199757 41 41 39 0.17192965116532397 11 1763 2 1472
2271 5.5650802261269874 0.34920452905460686 6.0866981767181256 47 47 47 0.032644863758198202 9 2119 2 1475
2272 5.1432223208729173 0.34084099710346 6.1231474680394324 10 10 10 0.40668131104868976 4 1547 9 1601 2 1479
2273 4.6858887863391745 0.25371675787614767 6.5083888287058205 36 36 36 0.33227753336332555 4 1596 9 1594 2 1481 6 1910 5 1994
2275 5.6047983828317731 0.27564016149541171 5.9627235628182422 3 3 1 0.80796112286626032 4 1577 9 2130 2 1499
2276 5.333807419328541 0.25063942825148544 6.2507088379093574 29 29 27 2.4568295266140283 6 1855 14 1938 5 2046
2277 5.3804640822939929 0.29953007864322229 5.9918484474172722 39 38 36 0.61630260032846829 4 1603 9 1633 2 1508 5 3767
2278 5.5748655074759377 0.29779386852948808 6.0155083407755505 35 35 33 0.36912393043577757 4 1602 9 2126 2 1509
2279 4.7058211962381238 0.20554274096666392 6.3826820969410241 8 8 8 0.16555684918421534 11 2346 2 1513 14 2181
2281 4.7049125642142577 -2.9098667815238128 10.780455201210069 193 179 160 0.86563276768571018 9 1685 11 796 2 1527 6 1473 14 1481 5 1032
2282 6.9119007975429803 -2.8679504675693552 7.4996938587074107 219 210 195 1.5710376192391373 9 1705 2 1556 14 2233 15 1784
2284 5.5083975609495166 0.081952973156515632 5.7209445311354328 30 29 25 0.34586211984492188 4 1698 9 1567 2 1577 16 1696
2285 4.3562669645165029 -0.22809870799374765 6.5480280627246623 23 23 23 0.42376193219179314 4 1724 2 1578 6 983 5 1358 3 1358 8 902 10 1342 12 1184
2288 3.9397596983974248 -1.0169733668203937 9.3802845764539207 53 36 26 1.1713823528006293 4 2318 7 5398 3 2178
2289 5.6018214112797011 0.081474661831239498 5.7223216773323342 45 46 41 0.64998751569811575 4 1699 2 1594 9 1532
2290 4.3765929695624921 -0.12962019985515427 6.5282301731535304 17 17 17 0.10571444292786381 4 1685 2 1599
2291 5.6335687814320323 0.11373438561920599 5.7521401368023088 11 10 8 0.52641207043549365 9 1562 2 1603
2292 4.3349644514853658 -0.30415793271308295 6.528056989066898 25 25 25 0.75762485868046969 4 1716 11 2635 2 1608 6 909 7 1002 5 1158 3 1015 8 926 12 1157 10 1335
2293 4.3114710103553131 -0.39028628383330427 6.498755781689229 28 28 30 0.26047416402410306 4 1471 2 1613 6 940
2294 4.3883089879566786 -0.35608454662891315 6.4020634928030242 80 71 70 0.099659382960197898 4 1636 2 1614 6 1726
2295 4.3439161403255913 -0.34484414706075966 6.4774694470617922 71 71 71 0.20385618635423905 4 1639 2 1616 6 1619
2296 -0.25890732622904383 -0.93726588888435458 8.0673764472567555 200 188 163 0.41922665927500047 11 955 2 1619
2297 4.2746096680953496 -0.35717316641059976 6.6476471929264918 61 61 61 0.43874174299589719 4 1720 2 1622 6 1628 7 999 5 1464 3 1034 8 1905 12 1174 10 874
2298 4.2778005978693221 -0.29433775380605515 6.5546247899326726 18 18 18 0.10746917229502372 4 1714 2 1627
2299 4.3307121138398701 -0.26705001353388919 6.5851585668891968 75 75 75 0.29634279072226494 4 1711 2 1635 7 1012 6 1597 3 989 5 1462 8 1895 12 1180
2300 4.3917656157588105 -0.22857122288251444 6.4662893660399288 17 15 16 0.20373228633622406 4 1484 2 1636 6 978
2301 1.0398467899646171 2.1654009999874018 5.1885826926813348 108 91 67 1.5198472779988306 9 1919 2 1655 5 1132 3 4967
2302 -1.9267615806834228 1.6539180059428096 5.7773025626897949 100 82 60 0.98008152265769033 9 810 2 1676
2303 -1.9365824357753765 1.8668708791305917 5.423663177099602 103 83 59 0.81211884878380713 4 549 2 1684
2304 3.185792638373445 2.0431013619013503 3.340373964839281 219 211 189 0.50679162342681283 4 1356 11 2303 2 1694 14 1135
2305 1.92275368523141 2.0285088877680417 2.8507827497950218 20 21 13 0.15894164467698046 4 1792 2 1696
2306 4.1828579626477946 3.2020291997874093 3.5670574394689871 63 48 29 0.49213540942662343 4 1166 2 1703
2307 1.4999983342967673 3.0660758990923718 2.9335714793708938 62 20 19 1.1153112110293073 11 2925 2 1704 16 2606
2308 2.9894736215902729 1.6717408181927293 3.7267011599763533 7 8 3 0.27078075358572878 4 1225 9 1253 2 1713
2309 4.1829693969450661 3.1830855493168433 3.5858359274005989 95 80 61 0.78200259652447957 4 1851 2 1717
2310 5.3176438158830805 0.37150823664091787 6.0897744344435045 7 7 5 0.36036416515626013 9 1586 2 1731 14 1911 11 1724 16 1633
2311 2.6180575941132473 2.8559429392668676 4.0858038637439114 97 80 62 0.80901636679758759 9 1171 2 1741 14 1863
2313 3.472733435436556 0.76146222708393385 4.7611078460053662 160 158 159 0.40405256722010913 4 1907 2 1764 14 1916
2316 -1.0552310134438727 0.3544207688147073 8.2632553148918575 87 69 49 0.96651889787641154 4 2113 11 2297 2 1781
2317 5.5046960877549758 0.37632069703263615 6.0975914416066077 7 7 7 0.082096149229969953 9 2112 2 1797
2319 5.1790831066123921 0.37360337622450712 6.1449863649255629 38 38 38 0.37983872371202482 9 1590 2 1800 5 2613 6 2141
2320 5.3621763739349406 0.39631306502350722 6.1329154350351036 34 34 32 0.160244433683254 9 2147 2 1805 5 3729
2321 5.2130384203326692 0.40289471450810416 6.1784863168497717 7 7 7 0.31212388968819882 4 1833 9 2137 2 1811 5 2608
2322 4.9407460190687358 0.37163913071869115 6.3155613702871092 13 13 13 1.0915175984169827 11 2494 2 1812 6 1881 14 2136 5 1998 7 2282 3 2359 1 2012 8 4795 14 2141
2324 2.8411656740327631 1.4106225189198076 4.1611397466639843 60 48 48 0.52551419087136386 11 2269 2 1837 16 1311
2326 3.8212554795857789 1.179443247187284 4.3406680341098349 59 59 49 1.1817973033534905 9 1080 11 1369 2 1874
2327 2.1152494471158465 3.0931447710588684 3.1094764707141334 130 127 122 0.55894809422004321 4 1864 11 4447 2 1887
2328 1.8725115408801316 2.1416413633322184 1.2671746705544804 61 55 43 0.83759942645477392 11 1506 2 1891
2329 -2.0939908700915812 1.7264366112625424 5.6232884854707956 105 87 64 1.283868945001617 4 831 9 1913 2 1898 6 1201
2330 4.6540310503328497 -0.038549917087119592 7.351980376540622 15 15 15 1.2643766030825594 11 2417 2 1915
2331 4.4630554359608086 -0.093593820457475316 7.175481721634565 42 42 42 1.9088069403147716 11 4123 2 1922 16 3751 4 2065
2332 5.8981638684070337 0.20615103443529917 6.0927996829079962 34 34 32 0.67298180813082875 4 3461 2 1923
2333 6.3750804294392385 0.088080677731693771 7.4290789288398171 5 5 5 2.2589227223283563 9 1534 2 1932
2334 -0.97075301219023791 -0.75787829174300181 7.5697278231476384 206 188 165 1.1405966321412027 11 1170 2 1944 15 1619
2335 4.2266523692383382 -0.45021200583511867 6.7152045542115246 74 74 71 0.39449933623272254 4 1631 2 1952 6 1616 7 1042 5 1618 3 1020 8 925 12 1159 10 871
2336 4.2290034383576049 -0.52887798280975751 6.6108770750913832 84 80 77 0.49305366343313795 4 1609 2 1958 6 1732
2337 -1.1339622229892061 -0.7118483085717251 7.4208471438121899 189 170 132 2.1023833946946078 11 2661 2 1979 6 2176 15 2085
2338 4.9170677391674769 0.4279065229729116 6.477243717899551 13 13 13 0.68910566467989798 9 2267 2 1980 6 2243 16 2949 5 3563 3 4189
2340 5.1213187817756136 0.48520177593258101 6.3531393140260848 47 47 47 0.52960279804262067 9 2264 2 1984 6 2241
2341 5.516533409679381 0.41548580210030928 6.8200864119973907 8 8 8 1.7728538415572135 2 1987 6 2893
2344 -1.0940957325187513 0.097734136519934886 7.9569636260922874 176 166 141 1.5447912490440907 9 2224 2 2007 6 4302 4 2056 16 3904 15 3590 13 2064 13 2917
2345 4.7838783189806691 0.37696000516697487 6.608521006857627 35 35 35 0.17506095670725599 4 2153 2 2008 6 2247
2346 5.1911585747657334 0.49618158181641098 6.4608087289573435 7 7 7 0.03447643649898198 4 3524 2 2013
2348 5.4812358153416287 0.34808568187411981 6.7001529915566751 38 38 38 1.4399990539214795 2 2018 6 2130
2349 4.9081703072545846 0.37125138776041022 6.3777885270981507 38 38 38 0.69272344691921939 9 2254 2 2021 6 2127 1 2013
2350 4.7176518604864528 0.31563484540889247 6.61412623901722 61 61 61 0.20376040717764993 4 2036 2 2024
2351 5.5343219825396899 0.33914770354319906 6.6489707710123307 7 7 7 1.7914686943602391 2 2025 6 2135
2352 5.5804684785728975 0.39698659326902219 6.6694836541738178 4 4 4 2.0883742196148329 2 2038 6 2114
2354 5.0538213690722031 0.42861244622858269 6.2975035514667912 32 32 32 1.2662334974076384 4 2189 11 4186 2 2042 9 2251 6 2120 16 2902 14 3067 15 3848 5 3829
2355 5.205865083870755 0.4408696812990755 6.2489004224048355 7 7 7 0.14977328691425712 9 2245 2 2046 5 3752
2356 4.9420344396051963 0.40527603895271158 6.4011002557708849 14 14 14 1.0451437475857235 4 2152 9 2242 2 2047 6 2267 14 3075 11 5852 16 2943 5 2625 7 4432 3 4235 8 4947
2357 5.6410476741047733 0.38528198601694824 6.634598112794734 47 47 47 1.1615564452341118 9 2252 14 1899
2359 5.1709757461873602 -1.5314494180306311 4.5507275871543253 233 221 207 1.0423525624399781 4 2264 2 2064
2360 4.3952409841538493 -1.2089244979371498 3.8499275729905174 171 162 147 1.4644691610391223 11 4685 2 2068
2361 4.3981845498621288 -1.4116278743150421 4.2459997852580003 177 165 155 2.3523805184804774 11 4830 2 2069
2362 4.7229638938383358 -1.4280312490667453 5.173012174414235 74 72 73 0.6163026155329655 4 1660 2 2072 14 1635
2363 3.3000861433485005 1.6617694175029099 3.6172905637912498 55 20 16 1.3027466671360048 9 2956 2 2122 5 3876
2364 3.5787584484008672 -1.5020997306975781 8.8485692428247642 165 152 141 1.6145184228660274 11 3954 2 2151 14 3921 16 5058 15 5995
2365 5.0761440933941744 2.4721902322497926 4.8332811919787373 160 150 137 1.5708076071270352 11 6902 2 2211 14 5578
2366 1.7896531933661952 2.2871497270978458 2.7017148847336032 6 7 1 1.3728329198065758 9 1800 11 1977 2 2212 14 1787
2367 0.83167001895370907 2.317892736783441 4.9289355879247347 137 120 92 0.25050607749701514 4 1791 2 2218
2368 1.8163854239326229 2.5071809819948836 2.8292542312516216 208 208 198 2.4333066283959082 4 5740 2 2221 16 1433 14 1162
2369 2.4171722080174365 2.653536703918661 4.2774799781716721 82 72 62 1.1445514930696539 4 2978 2 2224 14 5464 11 6805
2370 1.9971765550884799 2.513942749791207 2.9146342444618591 57 54 45 1.0789170971257931 9 5645 11 1950 2 2225 14 1161 16 1402
2371 4.7524273953460776 2.0410821082273762 5.1625428162222651 55 47 37 0.17500883189113703 4 3778 2 2242
2372 0.50750194731436671 3.3584358759713226 2.9713652448507353 161 137 111 0.061064658806598275 11 2865 2 2277
2373 0.63086986815139734 3.2355282997583488 3.2116363037901867 139 117 93 0.18109377069857713 11 2962 2 2302
2374 1.7898386217449276 2.8627203023667667 2.911911448011915 153 151 138 1.1833884684222784 9 1885 11 2756 2 2314
2375 2.8324728516209881 3.0341975556081087 3.8134786387626858 140 117 86 0.39842898466269577 4 1769 11 3457 2 2315 14 2495
2376 2.9869806119498046 3.2140339367321635 3.4677570025786704 136 115 88 1.018863212100465 4 1860 2 2337
2377 1.4414839223975051 1.8921080425956951 2.8238396095775551 19 17 5 0.48234562793303909 4 2419 9 6429 2 2338
2378 4.2077732032924375 3.1867120819565615 3.5874443732127816 111 96 77 0.74964991874122711 4 1853 2 2339
2379 -2.3521472474599028 0.79726816580509696 7.2133334739275705 66 47 30 0.046555814971455334 4 2600 2 2349
2380 3.3162870066828662 1.3627818784808496 3.5369829179155112 133 41 50 1.3250430606867378 4 1989 11 3051 2 2354 14 2695 16 2870
2381 -1.9865526721726328 0.6778737055773626 7.3739099004101449 55 38 28 1.8452876236891509 4 1933 2 2361 6 535
2383 -0.67027533634052838 0.88643820481380753 7.310007399177457 98 85 68 1.8288021861176036 9 2680 11 2363 2 2374 6 5678
2384 -1.6203013683420036 0.69559737916179376 7.0830088125378605 117 105 89 1.454063505363923 4 2709 2 2375 16 2180
2385 -0.36500095439826408 0.11867048733383792 8.7482759090312818 90 71 57 1.8969912733621774 4 2151 2 2400
2386 -1.426403421576782 0.50703482618798312 7.8958838330622934 99 83 68 1.9171489330353171 4 3346 11 2444 2 2411 14 2634 16 3673
2388 4.7961964521918183 1.5938690120676007 4.9223655934470063 14 13 8 1.7978237572695837 11 5285 2 2424
2389 2.9278137172382102 1.6301684392195619 3.6920050664844446 8 9 3 0.86550857772220802 4 2003 2 2425
2390 2.9453892721687294 1.606796890699054 3.7517324112278057 47 48 43 0.66192489108554442 4 2650 2 2427
2391 4.7403814450587669 1.5740896160566198 4.7858381067139772 16 11 5 1.312195642120515 4 2708 2 2430
2392 2.9634894178296038 1.8982726161158596 3.4080090283817746 205 197 178 1.0543871268981886 4 4679 9 4988 2 2443
2393 -2.2511576448603767 1.0460631958320679 6.8676069023261457 115 97 75 0.21886622127989133 9 1250 2 2459 6 869
2394 0.37861357595005701 1.0196644011794449 7.1481937515171881 93 76 56 1.0236653270103966 4 2873 9 1959 2 2468 6 5692 14 3295 11 3047 15 5964
2395 2.829793110132206 1.5194518712015852 4.016440317135447 170 155 137 0.85080495971679271 2 2477 14 2660
2396 -2.3575314481828862 1.1360512790554746 6.7113983418812957 70 54 35 0.31383927675868911 9 1254 2 2479 6 755
2397 -2.6522274028673367 1.0521936956826536 6.8246991988033185 124 98 64 0.60524196140811526 4 1090 6 548 2 2492
2398 1.0264740518540068 1.3479548221864868 6.6012556866293082 133 115 91 1.442907539944049 4 2894 2 2505 6 3685 9 5023 14 2720
2399 -2.1212430744268911 1.3412165077875484 6.3866495557533725 139 119 94 0.23461433364055731 9 2014 2 2507 6 1118
2401 -1.1873722497077801 1.6370307053784985 5.9065225994057968 138 118 93 0.34562802021499045 4 2702 9 2751 2 2537
2402 3.014012587217672 1.8368924601271188 3.5186214283642339 177 171 156 1.1491511048296603 4 4790 2 2544
2404 4.7976909965849952 1.7169157305378349 5.0367123017615096 69 62 49 0.47363108902027651 4 2632 2 2557
2405 3.1800242787465143 1.7667648354189003 3.7009469115188334 115 34 33 2.3099291991866466 4 2775 2 2568 14 5907 16 6605
2406 3.1931416049097505 1.4289650686292841 3.5742647881087755 218 122 116 1.7073584550025434 4 2752 9 3963 2 2584
